# 3D point list with one line of data per point:
#   POINT3D_ID, X, Y, Z, R, G, B, ERROR, TRACK[] as (IMAGE_ID, POINT2D_IDX)
# Number of points: 342, mean track length: 3.49708
367 -0.106008 -2.17233 4.85416 43 43 43 3.41479 10 275 2 323
366 1.90124 -2.30087 4.85118 43 43 43 0.82975 1 231 2 326
364 1.59489 0.333404 7.06516 4 100 41 3.16346 10 320 2 198
363 2.20002 -1.48171 4.13301 1 113 28 1.36808 1 0 2 1
362 -13.7228 -0.346491 35.4631 4 98 42 0.585367 10 214 1 273
361 0.744028 -0.118272 9.63577 4 107 33 0.967433 10 287 1 251 2 239
360 -0.777355 0.22762 5.36227 4 94 47 0.801722 10 212 1 247 2 307
359 1.36327 -0.26099 4.89374 4 92 47 1.20521 10 295 1 245 2 249
358 1.40353 -1.67109 3.64542 1 107 38 0.193712 3 310 1 233
357 0.576607 -0.188026 9.5982 4 88 48 0.61929 3 203 1 197 2 240
356 1.7587 0.617321 6.96458 4 123 22 1.17823 10 279 1 193 2 204
355 1.7547 0.696881 6.48496 43 43 43 0.182903 10 96 2 316
354 -0.5296 1.4489 4.14453 43 43 43 1.10194 3 194 1 159 2 273
353 -0.515004 1.47874 4.15684 1 123 23 0.36916 10 113 1 133 2 134
352 -0.845343 0.691401 5.69597 4 93 46 0.589452 10 182 1 121 2 156
351 0.632037 -0.29072 9.7687 4 79 57 0.94344 3 174 1 114 2 102
350 2.39976 -1.61547 4.11085 4 61 73 0.520976 10 114 1 110 2 153
349 -0.861212 0.22834 5.34736 43 43 43 1.86914 3 73 1 96 2 76
348 1.90329 -2.05128 4.17385 43 43 43 1.30523 3 115 10 112 1 85 2 91
347 0.737364 -0.0799567 9.73437 43 43 43 1.38673 3 127 1 83 2 98
346 -1.13285 0.429095 5.38894 1 103 41 1.39255 10 53 1 79 2 121
345 2.71226 -1.37852 4.44884 1 87 52 1.41739 10 62 1 62 2 50
344 1.02717 -0.287876 9.92741 1 90 48 0.64472 3 98 1 56 2 63 10 73
343 -0.708703 0.727868 5.40581 7 50 81 0.753116 10 54 1 30 2 33
342 1.31642 0.7109 6.49655 4 88 50 1.99288 3 53 1 27 2 57
341 1.8712 -1.94711 4.12216 1 82 55 2.13357 10 19 1 23 2 25
340 1.60225 0.532518 6.77378 1 105 37 1.66405 10 14 1 8
339 -0.85225 0.223994 5.39675 4 47 84 1.40742 8 80 9 102 7 111 10 118
338 1.80002 -1.58032 4.21094 7 43 86 0.0137321 3 186 10 274
337 1.4355 0.740899 6.55136 4 95 47 0.382115 3 272 10 250 1 258 2 276
336 0.0805669 1.18073 4.78366 4 99 44 0.202521 3 230 10 247 1 281
335 -0.155487 -2.33037 4.76668 43 43 43 1.71474 3 195 7 285 10 231
334 -1.27761 0.0121952 5.33751 1 109 33 1.19986 3 177 10 220 1 204
333 0.831488 -1.82221 4.70251 1 104 39 0.192387 3 153 10 206
332 1.02997 -0.126643 5.54502 5 89 50 0.299624 3 205 10 176 1 138
331 -0.0586085 0.265545 5.61903 1 84 53 0.214333 3 163 10 171 1 157 2 244
330 -0.000806764 1.21093 4.7345 1 94 49 1.54167 3 134 10 168 1 160 2 325
329 -0.526792 1.43996 4.17768 1 120 26 0.125762 3 190 10 167 1 187
328 -0.77152 0.465065 5.34641 3 89 51 0.174508 3 164 10 164 2 242
327 2.55744 -1.43843 4.43655 43 43 43 1.09686 3 142 10 139 1 178
326 2.6097 -1.41041 4.47368 43 43 43 2.64562 3 219 10 130 1 175
325 0.0213309 1.20064 4.7752 43 43 43 0.549126 3 123 10 94 1 101 2 135
324 2.48423 -1.45249 4.31716 1 118 27 0.888952 3 112 10 93 1 38 2 110
323 0.293125 -1.93354 4.71016 1 83 55 0.870186 3 43 10 64
322 -0.693026 -1.05634 6.23733 4 46 83 0.0330308 3 37 10 61
321 -0.184781 -2.29393 4.73918 1 108 34 1.0798 3 44 10 46 1 52 2 59
320 0.0106524 1.16597 4.61774 1 86 50 1.52467 3 33 10 34 1 25 2 30
319 -0.768313 0.920848 5.26394 1 111 32 2.76903 3 16 10 18 1 14 2 20
318 0.379824 -1.49096 4.77294 9 28 97 1.7786 3 15 10 13 1 15
317 -0.497396 0.0389329 5.45656 1 98 43 1.55996 3 14 7 13 10 11 2 6
316 1.5857 -1.44102 4.37054 6 33 95 1.21236 3 4 10 9
315 -0.385308 0.578189 5.59284 43 43 43 1.83954 3 9 10 7 1 2
313 -0.723052 0.961656 5.18321 0 0 0 2.69911 7 14 9 14
312 -1.28894 -0.0379691 5.39258 1 119 25 2.19725 7 312 3 314 10 222 1 168 2 222
311 0.0166038 -1.93901 4.91364 1 108 33 0.304602 7 353 3 304
310 -1.33592 -1.11476 6.76024 43 43 43 1.59679 7 286 3 287 10 304 10 306
309 0.992843 -0.182133 9.66155 43 43 43 1.75706 7 257 3 266 1 252
308 -0.0409533 -2.06823 4.83755 1 113 31 0.304449 7 351 3 254
307 -0.133073 -3.84748 8.6397 4 91 51 1.68854 9 271 3 253
306 0.331297 1.11638 4.70646 4 102 41 0.301051 7 218 3 245 10 205 1 243
305 0.308798 1.12985 4.70984 43 43 43 0.259429 7 258 3 244 10 258
304 0.885978 -0.144747 9.77913 43 43 43 0.443444 7 225 3 201 10 255
303 2.48793 -1.63026 4.1751 4 79 57 0.492397 7 338 3 187 10 160 1 153 2 171
302 1.46351 0.746164 6.56118 43 43 43 0.407764 7 220 3 172 1 143
301 0.549855 -1.92675 4.78315 4 79 59 1.28605 7 210 3 151 10 159 1 152 10 108
300 2.30666 -0.80091 4.50868 7 33 93 0.357047 7 136 3 133 10 124
299 1.78318 0.64669 6.79509 4 113 31 0.328583 7 132 3 130 10 147 1 126
298 0.127263 1.15198 4.76796 4 100 40 0.633749 7 97 3 100 10 84 2 136
297 0.0675591 -1.94491 4.83924 43 43 43 1.6037 7 90 3 99 8 58
296 0.572455 -1.74434 4.74818 43 43 43 0.661054 3 84 10 75 2 92
295 2.42924 -1.32677 4.09821 43 43 43 0.0658816 7 148 10 142
294 -0.324455 0.813098 4.96953 1 105 37 1.54493 7 91 3 79
293 1.84891 0.550515 7.14136 4 96 44 0.721198 7 109 3 69 10 68 1 68 2 73
292 0.657414 -1.90695 4.82854 43 43 43 1.95892 7 83 10 76 1 66
291 2.38321 -1.28218 4.0983 1 96 44 1.32785 7 65 3 46 10 48 1 64
290 1.38052 -1.64779 4.48404 4 40 88 0.902033 7 47 3 45 10 45
289 1.68613 0.343227 7.20995 43 43 43 1.45177 7 34 3 35 10 36 1 28
288 1.92295 -0.125731 5.04766 4 43 84 1.55532 7 27 3 26
287 -0.648822 0.566998 5.47098 4 69 66 1.33147 7 15 3 18 10 15
285 1.23122 -0.627678 4.76 4 53 78 1.93897 9 9 10 10 1 11
284 1.03841 -1.06587 4.66647 1 107 35 2.34523 7 9 3 6 10 4
283 0.937728 -1.59393 4.63708 4 91 48 1.38035 9 3 3 3 10 12 1 12
282 0.809493 -1.27452 6.97859 4 74 62 1.08241 7 0 3 0
281 0.0881916 -1.86963 4.83262 43 43 43 2.10201 8 108 7 151 8 126 9 122
280 -0.510251 1.50944 4.20351 43 43 43 1.73464 4 223 6 202 7 216 8 224 9 206
279 1.78768 -1.27094 4.37806 1 88 51 1.19275 4 346 7 334
278 1.68323 -1.93168 4.55918 1 98 44 1.64649 9 91 7 43
277 -0.0747778 -2.14432 4.70569 1 108 35 2.02536 9 281 7 340
275 2.29256 -0.620175 4.9747 1 125 19 1.80762 9 213 7 278 10 109
274 2.3937 -0.490857 4.95722 1 126 22 0.65578 9 222 7 277 3 208 10 144
273 -0.00397645 -1.96698 4.90827 1 103 39 0.261821 7 253 3 257
272 -2.82095 -3.10477 10.3051 2 80 58 0.671008 9 241 7 251 3 261
271 2.47858 -1.49532 4.53161 4 96 45 0.925275 9 341 3 143
270 2.40768 -1.22389 4.09841 1 85 55 1.07451 9 240 7 206 3 121
269 -0.917129 -0.611721 6.15432 4 101 40 0.776031 9 182 7 198 3 182 10 225
268 2.46783 -0.435959 4.86046 1 106 36 1.46528 4 243 7 191 3 179
267 -0.821238 0.469223 5.36447 4 51 79 1.31678 9 172 7 190 10 253
266 2.32581 -1.30098 4.0877 1 106 36 0.46429 9 118 7 146 3 185
265 2.12428 -0.713646 4.65043 7 60 75 0.650694 9 109 7 119 3 93
264 0.280699 -0.962063 5.10537 1 111 34 1.6427 9 52 3 109
263 -0.446308 1.47948 4.28505 43 43 43 0.733985 7 100 3 102 10 67 1 72 2 87
262 1.49343 -1.86705 4.55609 1 88 50 1.8855 9 123 3 65
261 -0.502584 1.46181 4.19643 1 117 27 0.440139 9 64 7 60 3 58 10 57 1 51 2 71
260 -0.154385 0.321311 5.67697 6 35 92 1.28896 9 45 7 58 3 57 10 70
259 2.11953 -0.395134 4.63696 4 67 66 1.50012 9 98 7 55 3 28 10 28 1 17
258 2.69018 -1.41013 4.48657 4 94 48 0.555853 7 49 3 48
257 2.07491 -2.08524 4.21294 1 84 53 1.35842 9 34 7 32 3 32 10 32 1 24 2 29
256 1.61215 0.585009 6.66756 4 118 26 1.4906 9 26 7 24
255 -0.0624141 -0.343127 5.08087 4 86 53 1.17885 8 1 7 1
254 -0.670202 0.765072 4.93928 1 112 30 0.0694338 6 221 5 389
253 2.50739 -1.41199 4.47715 0 0 0 1.26564 6 106 8 55
252 1.3655 -1.97372 4.25466 1 105 37 0.833357 5 98 7 46
251 -0.51274 -1.33857 6.40478 43 43 43 1.77141 4 332 6 360 5 378
250 -2.16028 -3.21096 9.90531 4 101 41 0.793813 4 283 6 185 5 208
249 0.242577 -1.97002 4.72005 1 88 52 0.524991 4 168 6 161 5 198
247 0.0357005 -1.16837 3.0932 3 102 39 0.324024 8 258 5 157
246 0.125497 -1.63578 5.16072 2 105 38 2.29827 4 151 5 87
245 -1.55708 -2.10039 9.86797 43 43 43 0.529772 4 68 6 57 5 85
244 1.86907 -1.79184 4.42178 4 80 56 1.87483 6 35 5 42
243 -1.26416 -0.600626 9.08642 4 111 34 0.388046 6 33 5 40
242 -2.31245 -2.11967 10.155 43 43 43 2.39428 6 34 5 27
241 -1.61048 -0.683538 8.57795 2 90 50 0.314489 6 1 5 1
239 -2.29307 -3.46929 9.94858 43 43 43 0.679693 4 278 6 368 5 440
238 1.7736 -1.45267 4.22251 7 31 95 0.585266 8 341 6 364 7 292 3 258 10 316
237 -1.67466 -1.1246 9.49295 4 118 27 0.531906 4 273 6 352 5 352
235 -2.03969 0.419236 7.97774 1 101 40 0.248893 4 271 6 335 5 350
234 -1.29259 -0.0408983 5.34598 4 59 72 1.11001 8 303 6 320 5 347
233 -2.25356 -0.922393 8.89912 1 105 38 1.80826 8 278 6 315 7 317
232 2.39845 -0.186331 4.61565 43 43 43 1.1798 9 256 6 314
231 -1.32173 0.643479 5.55741 1 101 41 1.27132 4 312 6 306 5 280 7 301
230 1.12113 -2.0744 5.03837 1 107 33 0.148453 8 349 5 444
229 -0.00688672 -2.00578 4.82929 43 43 43 1.51029 8 273 6 296 7 343
228 1.08957 -0.54351 4.70244 1 75 60 2.25097 8 242 6 293 5 356
227 -2.25435 -1.08677 8.92717 43 43 43 0.864542 4 246 6 259 5 298 7 234
226 -0.480759 1.37282 4.23204 43 43 43 2.26337 4 187 6 239 5 273
225 -2.11735 -3.16704 9.71549 4 91 48 1.41701 4 343 6 236 5 207
224 1.72794 -1.77601 4.5868 4 84 55 0.345492 4 213 6 235 5 310
223 1.44332 0.369439 6.89193 1 97 44 0.833553 4 165 6 227 5 397
222 2.19093 -0.813058 4.61452 4 100 42 0.45393 4 202 6 224 5 303
221 -1.67632 -1.00858 9.04436 4 60 72 0.957284 4 136 6 218 5 215
220 -1.20175 -0.467479 9.22037 4 110 33 0.0743244 4 193 6 216 5 244
219 -0.847803 1.22554 4.81175 43 43 43 2.1208 4 219 5 235
218 -0.77004 1.26362 5.16539 43 43 43 0.343631 4 274 6 210 5 227
217 -0.319728 -0.459613 10.9796 4 86 54 0.308934 4 227 6 206 5 248
216 1.77192 0.653394 6.70092 0 0 0 2.10186 4 131 8 340
215 1.46228 -1.80138 4.26159 4 41 86 0.378548 6 178 5 260
214 -1.59709 -1.11744 9.41094 1 116 27 1.25818 4 180 6 165 5 154
213 -0.756055 1.24377 5.12693 1 118 26 1.17215 4 189 6 160 5 276
212 1.90555 -1.4132 4.18405 4 104 38 0.67152 8 125 6 159 5 193 7 123 3 120 10 131
211 -1.34241 -0.491428 9.26587 0 127 18 0.879229 4 110 6 127 5 174
210 -1.05991 0.198185 8.1019 4 73 64 0.259439 4 117 6 123 5 145
209 -2.0275 0.38273 7.97405 1 100 39 0.459484 4 114 6 116 5 115
208 -0.347273 0.342065 5.53284 2 39 87 1.16817 4 116 6 114 5 170
206 -0.101511 -2.20669 4.71959 43 43 43 1.40999 9 275 6 102 7 296
205 -0.452211 -1.43424 6.28175 4 82 57 0.592475 4 103 6 95 5 110
204 -1.26089 -0.00833141 5.33523 1 123 24 0.788663 8 100 6 85 5 102 4 86 7 106 3 104 10 105 1 125 2 123
203 -1.50029 -0.0338954 8.32603 1 87 50 0.448082 4 85 6 82 5 99
195 -1.31992 0.167783 8.14845 1 85 53 0.866349 4 33 6 32 5 37
194 1.68976 -1.47784 4.30855 9 28 97 0.35039 4 24 6 26
193 -0.25679 -0.427006 3.42308 4 56 77 0.869349 8 90 6 22
192 -0.0103503 -1.2205 6.19494 43 43 43 0.342223 9 74 6 11
191 -1.46207 -1.8492 8.89582 43 43 43 0.504938 8 46 5 8
189 1.80668 0.639896 6.86443 4 113 31 0.950864 4 79 9 173
188 -0.191301 -2.32712 4.73217 1 110 34 2.50348 4 76 9 50
186 -0.496402 0.500143 4.4003 43 43 43 3.09758 8 8 9 13
185 1.77275 -1.78591 4.51481 4 87 53 1.42071 4 322 9 343
184 -1.69706 -2.35057 9.7328 4 88 52 0.525344 8 291 9 332
183 -2.18021 -2.00805 9.99022 4 58 73 0.331921 4 287 9 329 6 265 5 370
182 1.99287 -0.893566 4.74673 4 122 22 0.985533 4 203 9 328 6 241 5 255
181 2.47986 -0.469761 4.9865 43 43 43 1.70979 8 325 9 320 7 261 3 283
180 2.46577 -0.259344 4.46806 43 43 43 0.644719 8 318 9 317 7 310
179 2.399 -0.188787 4.7365 1 110 31 1.4406 9 312 5 271
178 -0.132643 -2.26468 4.71598 1 107 36 1.83168 9 310 6 284
177 -1.73761 -2.29273 9.73978 4 96 44 0.915044 8 252 9 290 6 226
176 0.556645 -2.75327 5.80028 43 43 43 0.491456 8 308 9 274
175 1.21232 -2.68985 5.1765 1 82 55 0.809077 8 283 9 268 6 292 5 359 7 283 3 249 10 259 2 225
174 1.02797 -2.00184 4.84087 43 43 43 0.30627 9 261 6 298
172 0.566079 -2.69646 5.8445 1 107 36 0.226935 4 236 9 239 5 291
171 -0.0352183 -0.970996 5.68354 1 120 25 0.614726 8 147 9 231
170 2.00536 -0.841652 4.75124 4 126 21 1.13508 8 219 9 230 5 317
168 2.42707 -0.459308 4.91824 1 106 35 0.840475 8 299 7 192 3 159
167 -1.21922 -0.062633 5.21156 4 50 79 0.411477 9 216 6 319
165 1.10202 0.637655 6.70625 4 86 52 0.345869 8 155 9 196 7 221
164 2.01199 -0.871082 4.74602 43 43 43 0.681299 8 178 9 186 7 241
163 -2.24744 -0.969226 8.91155 1 106 37 0.409166 8 193 9 183 7 281
162 -2.15264 -3.27127 9.8011 43 43 43 1.1185 8 152 9 176 6 105 4 152 5 96
161 -2.05451 -1.65426 9.56912 1 109 32 2.06238 9 166 6 28 5 22
160 1.97383 -0.942247 4.72583 4 126 21 1.23989 8 177 9 138 6 193
158 2.12405 -0.789383 4.70188 4 106 37 0.965062 9 111 6 194 5 210 7 135
157 -0.914813 0.171476 5.40446 3 89 49 1.29029 8 103 9 108 7 112 3 128 10 102
155 -1.09078 -0.115029 5.58378 43 43 43 0.190041 9 101 6 111
154 2.48764 -0.294189 4.5257 1 104 40 2.07377 8 99 9 99 5 104
153 1.24892 -2.58502 5.19503 4 86 53 0.834725 8 97 9 87 6 101 5 137 7 95 3 116
151 -0.796728 -1.96957 7.43714 4 88 50 1.46706 8 113 9 77 7 64
150 2.38187 -0.237399 4.49843 1 122 25 1.67499 8 87 9 70 5 179 7 56 3 56
149 0.787298 -2.03139 5.07462 4 48 78 0.4949 8 53 9 60 7 68
147 0.064098 -1.96324 4.83624 43 43 43 1.10658 9 42 6 98 7 70 3 85
146 2.22089 -0.568256 4.91584 1 110 33 1.10928 8 89 9 39 7 28 3 20
145 0.242582 -1.95275 4.82165 1 78 60 1.79076 9 38 6 48 7 42
144 0.180351 0.168544 5.54371 1 100 41 1.00742 9 20 7 22 3 22 10 25 1 18
143 0.901657 0.347725 6.91435 1 115 27 1.6115 8 29 9 19 7 23 3 21 10 27
142 2.17623 -1.51121 4.15138 1 120 22 1.25227 8 4 9 6 7 3 3 2 10 1
141 0.305059 -1.35734 5.32339 1 96 45 0.442714 8 354 4 275
140 1.03436 -1.86772 4.57563 1 104 39 1.65203 8 347 4 162 7 127
139 -2.06915 -3.34432 9.67909 1 103 37 1.56451 8 343 4 222 6 243 5 320
138 -2.25691 -3.38354 9.93281 2 107 35 0.282099 8 342 4 345 6 374
137 -0.0673576 -0.983072 5.93028 42 44 43 1.07065 8 330 4 143
136 -1.85597 -1.18167 9.81422 4 99 42 0.816486 8 328 4 244
135 -1.2616 -0.462504 7.0559 7 60 73 2.0127 8 323 4 242
134 -2.23178 -0.886063 9.02313 43 43 43 0.910551 8 322 4 325 9 247
133 2.43845 -0.228945 4.49 43 43 43 1.26159 4 324 5 299 7 309 3 248
132 -1.42643 -0.461943 9.11584 0 130 17 0.154701 8 314 4 300
131 -1.79649 -0.328183 9.11904 4 87 54 1.3615 8 311 4 241 9 257 6 321
130 -1.19394 0.101833 5.52051 4 99 42 0.757145 4 317 7 114
129 2.06652 -1.32568 4.29604 43 43 43 0.376437 8 290 4 285 5 435
128 1.10002 0.637869 6.75418 4 92 50 0.275608 8 285 4 233 6 246 5 281
127 -0.775795 1.20676 4.71628 1 104 38 2.71723 8 281 4 229
126 -2.03625 -3.41912 9.59094 1 105 38 1.96016 8 268 4 301 9 207 5 442 5 443 7 337
125 1.08092 -0.194585 5.55686 4 95 43 1.5024 8 267 9 217 7 271 10 177 3 206
124 -1.44055 -0.441298 9.16907 43 43 43 0.610498 8 266 4 320
123 -0.233848 -2.37799 4.71935 43 43 43 0.559027 8 264 4 249 9 269 6 348 5 424 7 256
122 0.554161 -2.54721 5.90319 4 100 40 0.551259 8 261 4 205
121 1.00256 -1.87654 4.49495 1 92 48 0.589103 8 260 4 215
120 -2.45458 -3.14334 10.007 43 43 43 0.652831 8 257 4 172 9 192 6 187
119 -1.86669 -2.63746 9.71046 7 48 83 0.75665 8 255 4 224 9 238 6 273 5 374 7 248 3 295
118 -1.81267 -2.44648 9.83393 4 104 39 0.619863 8 254 4 259 9 249
117 2.30932 -0.842024 4.54172 5 84 54 1.22557 8 251 4 329 9 233 6 376 4 330 7 200 3 157 10 125
116 -1.08864 -1.15759 6.54837 1 120 26 0.461996 8 249 4 256 9 296 6 223 5 211 7 325
115 -2.18395 -1.83794 10.0078 4 99 42 0.336807 8 248 4 201 6 195 5 182
114 -2.16728 -1.6071 9.95176 43 43 43 1.64937 8 247 4 289
113 -2.13997 -1.57462 9.91115 1 103 39 0.333817 8 246 4 221 9 267
112 -2.16833 -1.5449 9.94759 43 43 43 0.628025 8 245 4 253 9 225
111 -2.14355 -1.51788 9.95554 4 98 45 0.0733955 8 244 4 252 6 207
110 2.22659 -0.624007 4.88476 43 43 43 1.74454 8 243 4 179
109 1.56882 0.381735 7.09841 4 99 43 2.07931 8 234 9 137 7 93 4 315
108 1.79583 0.616123 6.79387 4 113 31 0.331259 8 230 4 234
107 -0.541288 0.779661 5.12339 2 101 42 0.30023 8 229 4 294
105 -0.0566344 -2.09783 4.81695 1 105 37 0.745952 8 213 4 310 5 133
104 -1.06305 0.294642 5.45711 1 83 56 0.496892 8 210 4 185 6 225
103 1.87288 -1.31281 4.36505 4 92 48 0.252109 8 203 4 208 9 178
102 2.12513 -2.12626 4.20939 1 87 52 0.416624 8 199 4 262 9 158 6 334 7 154
101 -2.21067 -0.11357 9.36058 9 29 96 0.964305 8 196 4 132 6 112 5 97
100 -1.72742 -0.429885 9.08815 4 106 38 0.441232 8 194 4 186 9 184 6 200 5 218
99 -0.214511 0.845483 4.87925 4 90 48 0.70129 8 191 4 160 6 213 5 239
98 -1.67434 -0.116153 8.53974 4 107 36 0.185107 8 185 4 171 6 228 5 222
97 1.11787 -0.257081 5.50121 1 119 26 2.47469 8 184 4 323
96 -2.17009 -0.821218 9.21219 43 43 43 1.48349 8 182 4 135 9 221 5 152
95 -1.2977 -0.560472 6.8253 4 42 85 0.0497915 8 181 4 119
94 -0.775751 -2.00798 7.3133 43 43 43 0.107246 8 179 4 206
93 0.427738 -1.43055 5.15358 4 83 55 0.0627358 8 175 4 102
92 1.82084 -1.29733 4.38876 4 84 53 0.274641 8 174 4 207 9 161 6 274
91 2.28595 -1.39578 4.29059 1 114 25 0.600532 4 210 7 293
90 -2.20338 -3.24896 9.85145 1 108 35 0.293907 8 171 4 212
89 1.8047 -1.79737 4.50145 4 89 51 0.331047 8 170 4 170 9 197 6 182
88 -1.18699 -0.325315 6.57217 4 33 94 0.479617 8 166 4 195 9 180 6 149
87 0.915265 -1.96727 4.50183 1 81 57 1.07071 8 165 4 126
86 0.764619 -2.35658 4.58939 1 81 58 0.694284 8 164 9 204 6 279 5 278 4 260 7 215
85 -0.0887071 -2.14068 4.77628 1 110 33 0.737153 8 163 4 188 9 152 7 153
84 2.03777 -0.773119 4.72535 4 127 20 0.870661 8 160 4 200 9 179 6 222 5 252 7 175
83 2.04294 -1.3372 4.29072 1 105 37 1.10224 8 158 9 145 6 188 4 150 7 121 3 140
82 1.92512 0.169249 5.22088 1 91 49 1.20615 8 157 4 133 9 171 6 146 5 175 7 184 3 126
81 1.83475 -1.8407 4.49485 43 43 43 1.38503 8 153 4 214 9 199 7 211 3 256
80 -2.34549 -2.53863 10.1554 4 91 47 1.08989 8 150 4 111 6 96 5 83
79 -1.8484 -2.35264 9.84344 1 112 33 0.288326 8 149 4 146 9 141 6 157 5 186
78 -1.8806 -2.08293 9.81595 4 80 57 0.523692 8 148 4 145 9 155 5 379
77 -0.123823 -0.895585 5.77659 2 105 36 0.147841 8 145 4 141
76 0.0764114 -0.845582 5.69198 1 79 57 0.117681 8 144 4 140 9 135
75 -0.0455855 -0.791084 5.80069 4 67 65 0.419606 8 143 4 139 9 134 6 155 5 180 7 177
74 -1.54908 -0.444723 9.09278 4 119 27 0.481509 8 139 4 192 6 214 5 290
73 -0.835756 1.19703 5.39684 1 115 27 1.71778 8 135 4 230 6 242
72 -0.81321 1.20175 4.99127 1 113 31 0.435096 8 133 4 99
71 0.127954 1.15525 4.50285 1 77 61 1.32571 8 132 4 147 6 121 5 132
70 0.689393 -2.61151 5.81834 2 107 34 0.138962 8 131 4 154 9 89
69 1.90061 -1.31932 4.33957 4 95 45 0.888129 8 123 4 149 9 126 7 98 3 90
68 0.296528 -1.33059 5.36184 1 105 40 0.760336 8 122 4 129 9 142
67 2.39091 -0.455323 4.90635 1 107 36 1.1974 9 97 7 104 8 120
66 -2.17366 0.00753027 9.12253 1 94 45 0.892428 8 117 4 84 9 307 6 66 5 59
65 -0.779155 0.447842 5.33525 1 94 46 0.547779 8 115 4 109 9 133 6 122 5 167 7 185
64 -2.16069 -3.32602 9.78292 43 43 43 1.52826 8 112 4 101 9 121 7 168
62 0.573933 -2.57811 5.88389 1 102 38 0.547727 8 109 4 127 9 124
61 -2.87254 -3.19699 10.3777 1 77 60 1.34085 8 107 4 89 9 120 6 97 5 88 7 147
60 0.112954 -0.871112 5.65102 1 78 56 0.273068 8 106 4 104 9 110 6 108 5 123
59 -1.84464 -1.00988 9.07029 4 51 74 0.275534 8 105 4 106 6 110 5 127
58 1.07924 0.59391 6.71874 4 87 53 1.06327 8 104 4 80 9 86 6 79 5 101 7 92 3 125 10 194
57 -1.57436 0.0819477 8.23348 1 58 74 0.209169 8 102 4 108 6 113 5 146
56 2.60304 -0.387838 4.76652 43 43 43 0.388141 8 98 4 62
54 1.60106 -1.86701 4.25947 4 38 89 0.639437 8 94 4 92 6 99
53 1.76793 -1.29961 4.42377 4 76 60 0.390513 8 92 4 98 9 78 6 132
52 -0.507319 1.46145 4.159 1 119 26 1.28047 8 88 4 93 6 120 5 142
51 -2.15459 -0.654802 9.11656 1 98 41 0.938422 8 86 4 63 9 71 6 61 5 45
50 -0.146876 1.32369 4.30783 1 97 42 0.797152 8 85 4 78 6 88 5 134 7 59 10 83 1 97 2 115
49 0.870543 -2.05623 4.99354 1 100 41 0.88129 8 82 4 90 9 62 6 104 7 85
48 1.48274 0.425667 6.83561 1 105 39 0.826773 8 81 4 115 9 47 6 199
47 1.28746 0.281224 6.86522 1 108 34 1.36121 8 78 4 83 9 67 6 125 3 71
46 -0.79507 0.305304 5.34588 1 99 41 1.02774 8 77 4 82 9 68 6 76 5 93 7 73 3 72 10 72 2 104
45 -0.999712 0.225739 5.47575 4 25 97 1.38 8 76 4 59 9 57 6 62 5 76
44 2.2801 -0.196114 4.67711 1 111 34 1.49042 5 159 7 51
43 -2.2224 -1.00258 8.96745 1 100 41 0.78742 8 74 4 87 9 73 6 77 5 80
42 -1.96554 -3.39057 9.60846 4 100 41 0.30183 8 69 4 72 9 59 6 56 5 65 7 81
41 -0.853688 -1.5754 6.8166 4 59 71 0.707789 8 68 4 52
40 -1.71757 -2.194 9.81927 1 100 42 1.12159 8 67 4 69 6 70 5 89
39 2.05809 -0.848276 4.7362 43 43 43 1.3904 8 66 4 67 9 53 6 94 5 141 7 44
38 2.05721 -0.72824 4.68008 4 108 34 1.21069 8 64 4 51 9 54 6 63
37 -1.8018 -0.116841 8.5558 1 103 38 0.879276 8 62 4 60 6 84 5 91
36 1.16389 0.404891 6.73373 4 62 72 1.31875 8 61 4 58 9 46 7 52 3 54 10 55 1 47 2 105
35 0.26435 1.07348 4.69539 4 108 35 1.76993 8 60 4 74 9 49 7 53 3 34 10 35
34 1.7099 -1.71692 4.54272 4 72 66 0.539865 8 54 4 53 9 40 7 67
33 -1.64908 -1.21469 9.58703 4 119 25 0.788143 8 51 4 49 6 59 5 81
32 -1.9084 -2.89449 9.70259 4 31 95 0.455976 8 49 4 44 9 44 6 46 5 48 7 48
31 -0.644983 -1.42102 6.55997 4 96 43 1.55778 8 48 4 43 9 37 6 44 5 47
30 -2.30875 -2.17127 10.0833 43 43 43 1.56607 8 47 4 42
29 -1.81595 -0.956248 9.16586 4 57 74 1.55846 8 44 4 40 6 39
28 -2.02773 -0.323099 8.9262 4 49 80 0.950826 8 43 4 39 6 43 5 39
26 -0.311072 0.888775 4.85373 4 84 53 1.37279 8 38 4 37 6 40 5 54
25 -1.13736 1.02258 5.65403 4 83 55 1.46752 8 37 4 30 6 30 5 35
24 -1.07798 0.764896 5.3412 6 52 80 0.666305 8 36 4 31 6 31 5 36
23 -2.29692 -3.29289 10.0326 4 100 41 1.48317 8 35 4 45 9 33 6 47 5 43 7 31
22 1.93235 -0.165168 5.09993 4 34 93 1.98012 8 34 4 36 9 27 6 38 5 68
21 -1.16402 0.472804 5.44458 1 101 41 1.72724 4 28 9 18 8 30 6 23 5 17 7 26 3 25 10 26 2 35
20 -1.1673 -0.571144 6.50256 6 25 97 1.29803 8 27 4 17 9 35 6 18 5 14 7 74
19 -0.320142 -0.587822 5.86109 4 52 75 0.908537 8 26 4 27 9 22 6 29 5 31 7 38
18 2.01157 -2.02877 4.16684 1 83 53 1.37909 8 25 4 29 6 49 5 50
17 -1.19258 -1.23656 6.73076 1 114 29 1.19301 4 21 6 12 5 13
16 -2.03235 -2.40549 9.93227 1 109 33 0.757339 8 22 4 25 9 31 6 24 5 24
15 -0.79855 -1.07373 6.40133 4 46 83 0.850828 8 19 4 26 9 25 6 27 5 30 7 30
14 0.30767 -0.685792 5.18289 4 56 74 0.902561 8 16 4 19 9 17 6 21 5 21
13 -0.732913 -0.669117 6.11906 4 96 42 1.86997 8 15 4 18 9 23 6 20 5 20 7 19 3 29 10 38
12 0.615513 -0.362644 5.08953 1 94 42 2.14009 8 14 9 16 6 19 7 16 3 19 10 17 5 32
11 -1.87062 0.136997 8.30435 1 102 36 0.878179 8 13 4 14 6 16
10 -0.70888 1.00782 5.02743 1 113 31 1.3135 4 8 6 7 5 15
9 -0.472889 0.00371421 5.45881 1 99 42 1.29883 8 10 4 11 9 12
7 1.33352 -0.615676 5.02679 4 44 84 2.28451 8 7 4 6
6 1.82314 -0.769541 4.72352 4 122 22 1.51783 8 6 4 10 9 8 6 25 5 23 7 5
202 1.33463 -0.607559 4.80325 4 46 82 0.904101 4 66 6 75 5 107 7 54
5 0.355618 -1.47173 4.83343 6 30 94 2.21832 8 5 4 9 9 7 6 9 5 10 7 8
201 -1.6061 -0.489368 9.11425 4 105 38 0.969808 4 61 6 72 5 70
200 -0.814248 -1.87505 7.16372 2 103 39 1.01345 4 70 6 71 5 51
3 1.58328 -1.43492 4.41765 5 40 88 1.59655 8 2 4 5 9 4 6 4 5 11 7 7
199 -0.816495 0.530812 5.36776 43 43 43 0.929661 4 56 6 64 5 109
2 -0.26247 -0.335523 4.84731 4 92 50 0.747993 4 1 9 0
198 -1.25329 -1.26376 9.28583 2 66 69 1.37234 4 65 6 58 5 67
1 -0.563531 -0.155258 5.29769 4 90 50 0.276206 8 0 4 0
